ply
format ascii 1.0
comment Created by Open3D
element vertex 1640
property double x
property double y
property double z
end_header
0.21346 -0.163311 -0.651097
0.194388 -0.164216 -0.647211
0.205531 -0.194415 -0.675753
0.188474 -0.159092 -0.65976
0.212588 -0.194141 -0.675851
0.213861 -0.158368 -0.670012
0.196665 -0.155415 -0.668845
0.216743 -0.169528 -0.664122
0.241271 -0.193948 -0.663581
0.234236 -0.15282 -0.667894
0.23616 -0.162848 -0.662389
0.236134 -0.195295 -0.664158
0.232607 -0.157835 -0.649598
0.249086 -0.145387 -0.648303
0.250965 -0.179861 -0.671607
0.255196 -0.178592 -0.671256
0.251438 -0.142245 -0.665344
0.254813 -0.152705 -0.655755
0.266323 -0.162923 -0.659211
0.263981 -0.128018 -0.662255
0.267656 -0.135532 -0.652447
0.262966 -0.164761 -0.659346
0.263289 -0.130765 -0.644429
0.275235 -0.140599 -0.653744
0.271218 -0.114083 -0.6596
0.274822 -0.110318 -0.650966
0.27258 -0.143032 -0.653589
0.272506 -0.116609 -0.642843
0.169147 -0.0487902 -0.546801
0.167646 -0.0477528 -0.519597
0.179195 -0.0544401 -0.520461
0.181259 -0.054228 -0.547017
0.193474 -0.051076 -0.544513
0.170517 -0.0540833 -0.5705
0.184621 -0.0584057 -0.569385
0.196316 -0.0515722 -0.567517
0.214592 -0.00709197 -0.582986
0.212106 0.0125944 -0.580823
0.197666 0.0197995 -0.581153
0.186378 0.0291751 -0.581646
0.175825 0.0395511 -0.581636
0.160875 -0.0453208 -0.593889
0.174058 -0.0624085 -0.590389
0.189448 -0.0672223 -0.587021
0.203169 -0.0575693 -0.585526
0.18819 -0.148607 -0.640429
0.206427 -0.146239 -0.637387
0.19946 -0.128403 -0.62692
0.18582 -0.126907 -0.638709
0.224157 -0.138459 -0.638792
0.217201 -0.121232 -0.626438
0.240411 -0.127095 -0.63895
0.232475 -0.109497 -0.628934
0.254945 -0.113773 -0.638406
0.245638 -0.0962805 -0.631654
0.267108 -0.101388 -0.639319
0.25783 -0.0834298 -0.635393
0.273504 -0.0938929 -0.647705
0.266439 -0.0750314 -0.644462
0.183079 -0.142332 -0.657366
0.18175 -0.121046 -0.654629
0.192911 -0.136649 -0.668442
0.191184 -0.115036 -0.66713
0.209213 -0.132381 -0.667748
0.206449 -0.110206 -0.666055
0.263304 -0.0769129 -0.657647
0.26856 -0.0969412 -0.659207
0.227286 -0.124844 -0.665693
0.223319 -0.10266 -0.663386
0.243849 -0.11518 -0.664432
0.239051 -0.0930026 -0.66267
0.257456 -0.105411 -0.66283
0.252422 -0.0839204 -0.661672
0.189952 -0.105935 -0.62036
0.207747 -0.102488 -0.613229
0.221609 -0.0899906 -0.616377
0.235027 -0.0757987 -0.620578
0.246924 -0.0619498 -0.629212
0.256856 -0.0535479 -0.639901
0.227043 -0.0493975 -0.605746
0.236408 -0.037669 -0.625379
0.244463 -0.0316911 -0.638344
0.233211 -0.00975166 -0.63677
0.227661 -0.0131359 -0.622775
0.210939 0.0267135 -0.621023
0.218928 0.00893577 -0.621024
0.224733 0.0125828 -0.635012
0.21659 0.0314781 -0.636255
0.223205 -0.0214239 -0.604345
0.215779 0.00176023 -0.60226
0.206353 0.0175777 -0.600945
0.195393 0.0523575 -0.63823
0.193147 0.0505082 -0.620564
0.203479 0.0397558 -0.62084
0.207841 0.0441708 -0.63727
0.177261 0.0538469 -0.641956
0.175215 0.0552695 -0.623374
0.160749 0.0407838 -0.628451
0.162186 0.0408024 -0.645878
0.189176 0.0395254 -0.600362
0.19736 0.0286166 -0.601206
0.175337 0.0471501 -0.601526
0.162141 0.0356842 -0.606134
0.158226 0.0203778 -0.631322
0.160316 0.0180208 -0.609081
0.15798 0.0211528 -0.648242
0.18079 -0.101962 -0.63728
0.180532 -0.0965264 -0.650785
0.212582 -0.0718717 -0.599894
0.19726 -0.083542 -0.599963
0.177606 -0.0779077 -0.609871
0.17224 -0.0751276 -0.633914
0.176763 -0.0695496 -0.648597
0.165083 -0.0495995 -0.634102
0.171694 -0.0454755 -0.647441
0.189298 -0.0909769 -0.660474
0.186423 -0.0648304 -0.654796
0.180595 -0.0414243 -0.6535
0.160661 -0.0276052 -0.633765
0.166038 -0.0248515 -0.647344
0.160095 -0.0094074 -0.632578
0.162216 -0.0080961 -0.647464
0.159389 0.0058328 -0.648066
0.159836 0.0050918 -0.631999
0.158168 -0.00891775 -0.612472
0.159129 0.00434464 -0.610587
0.158321 -0.0274832 -0.614539
0.163028 -0.0506474 -0.614018
0.255204 -0.0542451 -0.654136
0.244291 -0.0318707 -0.650745
0.232426 -0.0104103 -0.647804
0.222998 0.0114198 -0.64797
0.213237 0.0283524 -0.649434
0.204615 0.0386673 -0.650269
0.193866 0.0456842 -0.650848
0.179297 0.0453247 -0.652289
0.168349 0.0366832 -0.65504
0.165211 0.021266 -0.657962
0.166291 0.00783456 -0.659392
0.174224 -0.0210784 -0.655405
0.16903 -0.00548316 -0.658529
0.152498 -0.026204 -0.59432
0.153604 -0.00806777 -0.592141
0.156581 0.00389979 -0.590109
0.164225 0.030985 -0.585225
0.161467 0.0153443 -0.587891
0.2032 -0.0851415 -0.66231
0.218945 -0.0773634 -0.660345
0.233435 -0.0682562 -0.660357
0.245745 -0.060108 -0.659243
0.236481 -0.0366468 -0.656366
0.225219 -0.0432533 -0.658088
0.211456 -0.0512547 -0.658566
0.197772 -0.0592564 -0.657523
0.225279 -0.0150894 -0.654651
0.215324 -0.0211986 -0.657184
0.202534 -0.0279137 -0.658238
0.190859 -0.0357435 -0.65722
0.183101 -0.0157729 -0.660106
0.193221 -0.00787615 -0.659772
0.204835 -0.00169547 -0.657899
0.214163 0.00510025 -0.654772
0.205069 0.020714 -0.655122
0.196417 0.0133727 -0.657861
0.186115 0.00710525 -0.660063
0.177688 0.000173362 -0.661131
0.198387 0.0298096 -0.655128
0.181882 0.0372466 -0.656096
0.191042 0.0355851 -0.655282
0.174306 0.0323292 -0.658295
0.17317 0.021654 -0.659901
0.174785 0.0112075 -0.660964
0.180076 0.0235859 -0.658785
0.182548 0.0162373 -0.659503
0.1914 0.0222148 -0.65741
0.18698 0.0282273 -0.656942
0.179061 0.0293917 -0.65789
0.182616 0.0316572 -0.657002
0.211993 -0.0353753 -0.586734
-0.0176856 0.227212 0.740145
-0.0195145 0.253162 0.670894
0.141258 -0.143257 -0.231259
0.15602 -0.148949 -0.232733
0.171298 -0.150099 -0.229096
0.129321 -0.00291932 0.179321
0.0749663 0.0185849 0.364524
0.0794455 0.0251693 0.406648
0.0771564 0.022029 0.385116
0.135603 -0.0167565 0.157495
0.127192 0.0819225 0.42983
-0.00910874 0.212887 0.0937509
-0.0194512 0.261321 0.630014
0.105966 0.0558502 0.593314
-0.00797263 0.250236 0.174193
0.0637363 0.164927 0.896175
0.0613037 0.166625 0.894575
0.0606776 0.167 0.890802
0.0596062 0.171089 0.888719
0.0590136 0.174215 0.886458
0.058811 0.176256 0.885095
0.0621914 0.169509 0.890976
0.060467 0.17304 0.893577
0.0617922 0.169263 0.893613
0.0627473 0.168045 0.892982
-0.0132494 0.0614913 0.631343
-0.013224 0.0560644 0.614396
-0.0128064 0.0509766 0.597765
-0.0123396 0.0461816 0.580557
-0.0202556 0.0488312 0.860067
-0.00681115 -0.013785 0.306028
-0.00768799 -0.0109577 0.323488
-0.0088304 0.232565 0.343644
-0.00631202 -0.00854053 0.265799
-0.00816008 -0.0116893 0.340232
-0.0165502 0.25958 0.498783
-0.0119075 0.0416975 0.5626
-0.00644033 -0.00649995 0.252164
-0.0187646 0.267322 0.564656
-0.00867676 -0.0102203 0.361614
-0.00476773 -0.0185745 0.182668
-0.0101469 0.000743915 0.426565
-0.0605318 0.103592 0.969881
-0.0712556 0.112255 0.95981
-0.0666751 0.100227 0.953003
-0.0559632 0.0920985 0.959583
-0.0636514 0.0913067 0.947124
-0.0532566 0.085575 0.950627
-0.078045 0.119666 0.947339
-0.0739341 0.107797 0.944285
-0.080828 0.10745 0.908171
-0.0785101 0.109538 0.917147
-0.0841688 0.117134 0.912622
-0.0852993 0.115083 0.900372
-0.0807987 0.101316 0.8819
-0.0831763 0.109343 0.870517
-0.078127 0.0970065 0.86496
-0.074835 0.0912423 0.876539
-0.0429004 0.0724122 0.896897
-0.0457813 0.0758537 0.902277
-0.0516286 0.0753361 0.896585
-0.0481107 0.0716615 0.890383
-0.0338654 0.0688655 0.908742
-0.029635 0.0631251 0.913931
-0.0297107 0.0697477 0.918051
-0.0347509 0.0739946 0.912591
-0.0382129 0.0690502 0.891883
-0.0435144 0.0686297 0.884961
-0.0370118 0.0675917 0.899617
-0.0382884 0.0721866 0.903038
-0.0340835 0.0546331 0.89719
-0.031174 0.049857 0.899004
-0.0319853 0.051328 0.904672
-0.0352121 0.057694 0.901618
-0.0372699 0.0638514 0.893309
-0.0337654 0.060496 0.890901
-0.0351232 0.0584681 0.894305
-0.0372032 0.0620605 0.89738
-0.033748 0.0632683 0.905091
-0.0304835 0.0567725 0.909685
-0.0264608 0.0501676 0.912664
-0.0276603 0.0441756 0.906032
-0.0588582 0.073401 0.875781
-0.0541738 0.069126 0.872504
-0.0492588 0.0685385 0.8786
-0.0538849 0.0718562 0.883126
-0.034648 0.0629713 0.8867
-0.0380605 0.0564644 0.870791
-0.0324635 0.0529239 0.872866
-0.0325393 0.0541945 0.876909
-0.0386578 0.0579267 0.875067
-0.0649358 0.0772489 0.858761
-0.0656022 0.0782198 0.849085
-0.0594714 0.0711636 0.851127
-0.0593055 0.0711676 0.8586
-0.0573443 0.0700073 0.844172
-0.063555 0.0775729 0.839674
-0.0544007 0.0693252 0.824426
-0.0491577 0.0612375 0.833822
-0.0536723 0.0668019 0.838629
-0.0598147 0.0746092 0.831548
-0.0365956 0.0546251 0.84132
-0.0433015 0.0542767 0.829819
-0.0361765 0.048823 0.827389
-0.0309664 0.0508787 0.840399
-0.0369464 0.0588 0.863528
-0.0373866 0.0569993 0.86701
-0.0413985 0.060157 0.865352
-0.0409011 0.0612902 0.862725
-0.0452396 0.0641604 0.861875
-0.0450923 0.0635984 0.862846
-0.0467883 0.0639942 0.86359
-0.0471111 0.0649303 0.861521
-0.0432631 0.0630421 0.862268
-0.0441743 0.0635122 0.860885
-0.0417339 0.0616019 0.860244
-0.038762 0.0582045 0.860123
-0.0256853 0.0500472 0.860081
-0.024538 0.0526379 0.864699
-0.027525 0.053942 0.864509
-0.029691 0.0513596 0.860188
-0.0451899 0.062451 0.865786
-0.0425426 0.0599083 0.868135
-0.0438399 0.0609166 0.871825
-0.0475179 0.0631852 0.867824
-0.0504096 0.0654886 0.870223
-0.052992 0.0669799 0.865069
-0.0494361 0.064993 0.864371
-0.0460867 0.0645365 0.859446
-0.0499613 0.0661484 0.860779
-0.0491442 0.0660803 0.857262
-0.0470542 0.0639018 0.854379
-0.0439757 0.0623016 0.857853
-0.0407258 0.0587496 0.856756
-0.0436853 0.0603997 0.852057
-0.0387251 0.0565943 0.850371
-0.036196 0.054581 0.855869
-0.0458784 0.0639196 0.875244
-0.0540544 0.0680418 0.859734
-0.0572471 0.0703827 0.866004
-0.053738 0.0680268 0.854265
-0.0516858 0.0660804 0.849527
-0.0429526 0.0584752 0.842943
-0.0480974 0.0626651 0.84586
-0.0474837 0.0624161 0.818931
-0.0385761 0.0573155 0.815246
-0.0595529 0.0894702 0.941158
-0.0510403 0.086529 0.943304
-0.0599667 0.0915851 0.932729
-0.056334 0.0894573 0.934303
-0.0569646 0.0897604 0.937159
-0.0615192 0.0926893 0.934712
-0.0727172 0.104615 0.920827
-0.0747309 0.103164 0.914407
-0.0688024 0.100521 0.919862
-0.0679492 0.100507 0.92399
-0.0618654 0.0910632 0.914341
-0.0594318 0.0910178 0.921529
-0.0623196 0.093821 0.921691
-0.0659599 0.0946087 0.914679
-0.0558745 0.0887547 0.92172
-0.0572387 0.08831 0.91514
-0.0524822 0.0863737 0.916793
-0.0517913 0.0873959 0.922373
-0.0501412 0.0883983 0.938571
-0.0509138 0.0880898 0.935299
-0.0447618 0.0884416 0.934831
-0.0428895 0.0881583 0.938281
-0.0349572 0.0896579 0.92717
-0.0319364 0.0876114 0.92736
-0.0323148 0.0885547 0.931443
-0.0357451 0.0900816 0.929588
-0.0365145 0.0887061 0.925314
-0.0346823 0.0868551 0.924025
-0.0513833 0.111562 0.990105
-0.0659036 0.119529 0.97962
-0.0467655 0.0960399 0.976455
-0.07684 0.126739 0.965734
-0.0834688 0.13323 0.950007
-0.0797165 0.101877 0.853679
-0.0727259 0.0887228 0.849929
-0.0714467 0.0861412 0.860861
-0.0786337 0.104458 0.841271
-0.0708512 0.0892486 0.838343
-0.0577917 0.0850092 0.817876
-0.0663045 0.0880566 0.82721
-0.0847379 0.122414 0.847049
-0.0818883 0.126915 0.836219
-0.0737116 0.106816 0.82865
-0.0855559 0.144087 0.846325
-0.0827922 0.152123 0.84105
-0.0761093 0.134905 0.823441
-0.0578877 0.119035 0.786694
-0.0710115 0.133539 0.789809
-0.0720002 0.134437 0.775212
-0.0593484 0.119324 0.772869
-0.0852516 0.11734 0.858903
-0.085916 0.127709 0.921129
-0.0882901 0.127382 0.906992
-0.0811189 0.116838 0.92437
-0.0855073 0.163972 0.973609
-0.091848 0.163666 0.955693
-0.0880792 0.14751 0.953878
-0.0817647 0.143437 0.971659
-0.0565558 0.160947 1.00815
-0.0733044 0.16316 0.992373
-0.0703463 0.138976 0.987867
-0.0544174 0.133473 1.00192
-0.0942489 0.180401 0.954232
-0.0879683 0.184907 0.971939
-0.0895615 0.205525 0.964273
-0.0954325 0.196348 0.948954
-0.0765591 0.190289 0.990858
-0.0793472 0.216746 0.981741
-0.0827836 0.165482 0.841598
-0.0813708 0.157009 0.823918
-0.0797365 0.151828 0.807452
-0.0707248 0.133419 0.806057
-0.0616143 0.224852 0.996302
-0.0586409 0.19278 1.00627
-0.0839136 0.235011 0.914045
-0.090632 0.219807 0.90842
-0.0936197 0.21422 0.924976
-0.0872264 0.231232 0.933356
-0.0746253 0.251205 0.918776
-0.077256 0.247698 0.941768
-0.0741696 0.221836 0.859807
-0.0647072 0.2354 0.857919
-0.0595252 0.223632 0.84223
-0.0688836 0.211425 0.84397
-0.0702313 0.0982237 0.941222
-0.0739937 0.10414 0.934147
-0.0686311 0.0986178 0.932824
-0.0653185 0.0939217 0.937415
-0.0822314 0.125166 0.934733
-0.0780275 0.113549 0.934674
-0.0906518 0.151212 0.93784
-0.0942048 0.164006 0.940076
-0.0973085 0.19071 0.936516
-0.0963032 0.177488 0.939658
-0.0939932 0.207971 0.904147
-0.0959717 0.204441 0.914932
-0.0835567 0.183805 0.847521
-0.0763042 0.198542 0.844929
-0.0741045 0.190423 0.826319
-0.0817085 0.175921 0.825945
-0.0570475 0.213609 0.825552
-0.0657877 0.202869 0.826029
-0.0780783 0.168538 0.792658
-0.0710682 0.183372 0.793412
-0.0722647 0.183153 0.77795
-0.0764699 0.168191 0.776852
-0.0646298 0.196178 0.777206
-0.0624748 0.195237 0.792359
-0.0539179 0.205611 0.791018
-0.0546682 0.205094 0.775589
-0.0357574 0.10019 0.769048
-0.0463368 0.108492 0.770709
-0.0479307 0.109905 0.757872
-0.0359948 0.102231 0.75662
-0.0776732 0.170364 0.763999
-0.0755772 0.185992 0.766652
-0.0802703 0.207747 0.861706
-0.0857681 0.196882 0.864607
-0.0683653 0.199295 0.765847
-0.0723299 0.185132 0.807905
-0.0635917 0.19713 0.807963
-0.0464132 0.222262 0.824825
-0.0481113 0.233751 0.841079
-0.0401192 0.0759967 0.9074
-0.04281 0.0856319 0.920219
-0.0384772 0.0860521 0.921826
-0.039398 0.0876805 0.92454
-0.0431921 0.0870296 0.923729
-0.0302562 0.0811195 0.96226
-0.0434446 0.0851842 0.962714
-0.0418041 0.0807045 0.95046
-0.0290742 0.077597 0.946899
-0.069564 0.0856681 0.890625
-0.0642349 0.0785948 0.881263
-0.0579984 0.0757779 0.889678
-0.0603861 0.0808414 0.897872
-0.065123 0.0977661 0.925937
-0.0640599 0.0959395 0.928345
-0.0663483 0.0984948 0.928066
-0.0625536 0.0752691 0.867902
-0.068538 0.0823969 0.871349
-0.0883984 0.125467 0.892312
-0.0759813 0.108496 0.926155
-0.0365837 0.158423 1.01864
-0.0366762 0.127427 1.01099
-0.0372127 0.193631 1.01589
-0.0388457 0.229427 1.00641
-0.0621195 0.261205 0.949606
-0.0408525 0.27047 0.956421
-0.0390026 0.274599 0.926376
-0.0602923 0.265601 0.922967
-0.0512391 0.246187 0.857643
-0.0437143 0.213144 0.791986
-0.0439503 0.211215 0.775508
-0.0347441 0.105141 0.996044
-0.0321473 0.0914348 0.978878
-0.0864132 0.13788 0.934988
-0.08066 0.102611 0.900321
-0.0770763 0.0954499 0.894484
-0.072502 0.0936865 0.905622
-0.075158 0.0992235 0.909118
-0.0841233 0.109941 0.890042
-0.0865091 0.120255 0.8794
-0.0892879 0.133353 0.868086
-0.0880769 0.138571 0.854886
-0.0896039 0.222141 0.951276
-0.0942613 0.209015 0.939888
-0.0632156 0.248432 0.975745
-0.0792434 0.23642 0.964127
-0.0965212 0.202142 0.930677
-0.0406041 0.25625 0.986168
-0.0320544 0.0562613 0.88144
-0.0303127 0.0576643 0.885857
-0.0390412 0.0617028 0.880679
-0.0313206 0.0514988 0.855307
-0.0332802 0.0535816 0.849084
-0.028205 0.0517543 0.848537
-0.0266397 0.0500688 0.855158
-0.0373446 0.0728236 0.807977
-0.047319 0.0781249 0.811362
-0.0359047 0.0971186 0.781464
-0.0459106 0.106418 0.783212
-0.030158 0.0551834 0.895385
-0.0305051 0.0571563 0.894375
-0.0285966 0.0565188 0.894639
-0.0286615 0.054777 0.895521
-0.0438326 0.0622239 0.86417
-0.0275567 0.0508672 0.873289
-0.0275986 0.0518855 0.869093
-0.0243378 0.0510207 0.868807
-0.024229 0.0500932 0.87283
-0.0625293 0.107474 0.813546
-0.0584624 0.116395 0.800409
-0.0776401 0.151639 0.776106
-0.0787152 0.150573 0.791028
-0.0800262 0.170567 0.80849
-0.0554334 0.208361 0.807766
-0.045505 0.216998 0.808563
-0.0325173 0.222475 0.809007
-0.0331933 0.228487 0.825189
-0.0472838 0.0937297 0.804487
-0.0462607 0.10248 0.794966
-0.0361276 0.093705 0.792487
-0.0362744 0.0861656 0.801095
-0.0245293 0.0527182 0.892508
-0.0254526 0.0546885 0.891017
-0.0235413 0.0532598 0.888707
-0.023048 0.0508519 0.891525
-0.0312791 0.0587155 0.89199
-0.0293148 0.0582419 0.888796
-0.0288759 0.0585754 0.890989
-0.0321455 0.0574121 0.893625
-0.0316046 0.0548943 0.89541
-0.026897 0.0498902 0.896746
-0.0265298 0.0448566 0.898346
-0.0298014 0.0517036 0.896649
-0.0264324 0.0544476 0.893874
-0.0265246 0.0562401 0.89239
-0.0284868 0.0581856 0.893041
-0.030207 0.0582828 0.893261
-0.0271979 0.0519244 0.896356
-0.0290077 0.0533261 0.896092
-0.0253208 0.0572152 0.918022
-0.0262585 0.0915528 0.779841
-0.0267401 0.0891293 0.790774
-0.0444589 0.0636588 0.862439
-0.0416702 0.0847445 0.943061
-0.0667062 0.0882825 0.904726
-0.0472651 0.0797236 0.907698
-0.0476216 0.0829973 0.91315
-0.0533946 0.0838311 0.910015
-0.0532316 0.0799814 0.90321
-0.0331409 0.0838474 0.939759
-0.0282048 0.0837744 0.934043
-0.0244516 0.0770453 0.936682
-0.0282444 0.0824948 0.9276
-0.0318705 0.0829753 0.922305
-0.0303874 0.076422 0.920874
-0.025358 0.0731379 0.928258
-0.0642905 0.0958261 0.931664
-0.0624122 0.0938629 0.9306
-0.0357039 0.0788492 0.915833
-0.0367349 0.08324 0.918734
-0.0419491 0.0831133 0.915977
-0.0413123 0.0797368 0.91162
-0.059672 0.0853754 0.906915
-0.0706744 0.102657 0.927357
-0.068325 0.098227 0.916611
-0.0862971 0.180799 0.86206
-0.0891664 0.189503 0.872286
-0.0884691 0.158544 0.858356
-0.0878347 0.163339 0.859876
-0.0831621 0.160125 0.853593
-0.085815 0.154777 0.854115
-0.0962306 0.187983 0.908186
-0.0955509 0.183617 0.909277
-0.0957593 0.183708 0.915625
-0.0958452 0.191373 0.913583
-0.0959395 0.177109 0.912876
-0.0954844 0.176497 0.909411
-0.0954502 0.173006 0.909288
-0.0952717 0.175335 0.916114
-0.0937839 0.167513 0.91463
-0.0938228 0.165434 0.926209
-0.0957354 0.175905 0.92695
-0.0894808 0.142876 0.916349
-0.0911543 0.1549 0.922769
-0.091796 0.160096 0.910005
-0.0905215 0.153996 0.902816
-0.0893024 0.148207 0.867758
-0.0890271 0.150316 0.858664
-0.0839291 0.16949 0.856251
-0.0717587 0.249425 0.897295
-0.0816387 0.23423 0.894732
-0.0882335 0.219908 0.892721
-0.0915837 0.207333 0.891431
-0.0579407 0.26287 0.899429
-0.0384923 0.271716 0.899464
-0.0909227 0.139456 0.899224
-0.0904209 0.150482 0.890982
-0.078133 0.229621 0.876612
-0.0680221 0.244091 0.877317
-0.0851073 0.215429 0.876465
-0.0887805 0.203752 0.878553
-0.0543888 0.25606 0.87757
-0.0365385 0.262971 0.875815
-0.0353318 0.252062 0.855148
-0.093703 0.159566 0.867166
-0.0944478 0.157725 0.861259
-0.091746 0.155741 0.860137
-0.0913729 0.155044 0.866439
-0.0902041 0.149045 0.879181
-0.0902861 0.137526 0.884192
-0.0253045 0.0641651 0.923202
-0.028729 0.0463171 0.826478
-0.0260321 0.0487627 0.840305
-0.0270256 0.0533372 0.881418
-0.0274582 0.0517577 0.877351
-0.024031 0.050954 0.876601
-0.0237015 0.0523513 0.880561
-0.0363797 0.08846 0.935719
-0.0337091 0.240311 0.839838
-0.031485 0.217574 0.792697
-0.0315344 0.214814 0.776484
-0.057634 0.208078 0.76299
-0.0452134 0.213436 0.76149
-0.0233406 0.053258 0.884836
-0.0263528 0.0545587 0.885407
-0.0267053 0.0529205 0.89552
-0.0322281 0.0537373 0.868551
-0.0266834 0.0563911 0.89084
-0.0261111 0.0554784 0.888535
-0.0213852 0.0520967 0.888287
-0.0215593 0.0527507 0.884428
-0.0475856 0.0854823 0.918775
-0.0474686 0.0868833 0.923177
-0.0250679 0.0505315 0.894881
-0.0238858 0.0476527 0.894338
-0.0615465 0.120824 0.759476
-0.073276 0.136619 0.761212
-0.0220106 0.050616 0.868596
-0.0219943 0.0497641 0.872529
-0.091174 0.160999 0.894156
-0.0925921 0.164553 0.901013
-0.0940735 0.168931 0.895136
-0.0926025 0.16621 0.889043
-0.0261955 0.0948384 0.768082
-0.0771543 0.154004 0.761869
-0.0320215 0.216809 0.761712
-0.0643825 0.0962205 0.922475
-0.0652944 0.0977815 0.923937
-0.0393227 0.0894523 0.932886
-0.0342098 0.0542262 0.860463
-0.0321658 0.0557822 0.864297
-0.027525 0.0825708 0.799317
-0.02135 0.0495867 0.891167
-0.0944155 0.179226 0.901814
-0.094033 0.178037 0.898463
-0.0967597 0.175765 0.897688
-0.0968403 0.175657 0.901047
-0.0980576 0.171464 0.905311
-0.0993589 0.173733 0.908683
-0.100557 0.174962 0.904681
-0.0990609 0.173607 0.901938
-0.0948896 0.168611 0.906474
-0.0960048 0.170255 0.901203
-0.101732 0.176116 0.910066
-0.101351 0.176995 0.906968
-0.0955637 0.179203 0.909736
-0.0987257 0.17728 0.911252
-0.0999876 0.182285 0.911996
-0.104348 0.180345 0.910358
-0.102229 0.18865 0.910554
-0.107094 0.185606 0.908779
-0.103055 0.193346 0.905653
-0.108326 0.19049 0.904424
-0.0912775 0.156352 0.874909
-0.0909775 0.163509 0.874272
-0.103407 0.194444 0.898718
-0.10899 0.192958 0.898434
-0.102627 0.19481 0.890923
-0.10852 0.193194 0.890908
-0.101923 0.192323 0.882833
-0.107355 0.191098 0.883365
-0.100957 0.188407 0.875079
-0.106136 0.187182 0.876648
-0.0993522 0.182358 0.866546
-0.104259 0.181288 0.870632
-0.10461 0.189246 0.902439
-0.103211 0.185998 0.906227
-0.0959296 0.189241 0.903683
-0.101923 0.181152 0.907899
-0.0930794 0.184439 0.891348
-0.092755 0.182342 0.888831
-0.0958556 0.179074 0.890382
-0.093071 0.181626 0.892087
-0.0935309 0.169787 0.886261
-0.0936474 0.168693 0.880898
-0.0928568 0.164058 0.881663
-0.0921766 0.168283 0.876828
-0.0908842 0.170511 0.880926
-0.0913139 0.17018 0.87774
-0.0898195 0.171597 0.88462
-0.0919906 0.171247 0.87604
-0.0931951 0.169524 0.874623
-0.0908172 0.172091 0.876798
-0.0902233 0.171491 0.877822
-0.0891473 0.172685 0.879295
-0.0890869 0.175394 0.881831
-0.0918728 0.158152 0.884616
-0.0899778 0.178421 0.869989
-0.0928372 0.184056 0.877127
-0.101423 0.174462 0.866206
-0.09776 0.173664 0.860549
-0.0960095 0.159267 0.858259
-0.0973468 0.165362 0.857915
-0.0950998 0.189491 0.898351
-0.0950807 0.189772 0.891607
-0.0882927 0.170171 0.864554
-0.0942648 0.187829 0.884776
-0.1024 0.180737 0.87452
-0.099913 0.175605 0.871564
-0.104799 0.185162 0.878876
-0.0944562 0.166482 0.87177
-0.0974808 0.170568 0.87082
-0.099301 0.167666 0.86534
-0.0967128 0.162885 0.865602
-0.0974336 0.175896 0.875232
-0.100647 0.179275 0.877676
-0.0939104 0.177502 0.876783
-0.0967631 0.180516 0.879555
-0.0928134 0.173757 0.875862
-0.0949726 0.172358 0.874113
-0.0899505 0.178201 0.87826
-0.0924081 0.182 0.88226
-0.0904024 0.174213 0.877007
-0.0995978 0.181895 0.88294
-0.0959753 0.183095 0.885769
-0.0993337 0.181946 0.889544
-0.102153 0.182446 0.886915
-0.103055 0.182547 0.881109
-0.104859 0.184919 0.885473
-0.105274 0.188525 0.884599
-0.105159 0.186898 0.890705
-0.10552 0.190262 0.890933
-0.103302 0.183968 0.890653
-0.101433 0.181915 0.892135
-0.105518 0.190652 0.897421
-0.104702 0.187344 0.89601
-0.103694 0.186594 0.900382
-0.103532 0.184425 0.89485
-0.102434 0.183886 0.898225
-0.102271 0.182561 0.894338
-0.10121 0.18173 0.896249
-0.0987068 0.178244 0.905544
-0.0976808 0.176375 0.90376
-0.100256 0.181251 0.905253
-0.0989828 0.180584 0.902516
-0.0977942 0.179173 0.903916
-0.0965618 0.178543 0.902815
-0.09822 0.179404 0.900093
-0.0960917 0.18043 0.89816
-0.037971 0.104808 0.730637
-0.0248186 0.102078 0.729289
-0.0248008 0.0994756 0.741967
-0.0367167 0.10399 0.743597
-0.100713 0.182314 0.900707
-0.0998257 0.180224 0.898077
-0.101975 0.184494 0.903445
-0.0975368 0.182112 0.893802
-0.0984716 0.180785 0.895737
-0.100065 0.180917 0.894104
-0.099039 0.181543 0.892466
-0.0929644 0.171585 0.890177
-0.0911135 0.1747 0.887784
-0.091218 0.178184 0.884554
-0.0762778 0.123326 0.713302
-0.0716363 0.12652 0.723408
-0.0864855 0.141324 0.727062
-0.0935641 0.137665 0.719245
-0.0890169 0.102531 0.691715
-0.115365 0.119237 0.696713
-0.11258 0.0980474 0.675168
-0.0899792 0.0913713 0.672709
-0.109435 0.0839871 0.656073
-0.08912 0.080412 0.65489
-0.100872 0.053379 0.606353
-0.0834403 0.0510098 0.606688
-0.0851552 0.0604566 0.622086
-0.103422 0.0626907 0.621999
-0.117487 0.0316777 0.52916
-0.111013 0.0333269 0.512247
-0.0983469 0.0279016 0.516729
-0.105993 0.0275684 0.531887
-0.177544 0.0833749 0.617815
-0.180557 0.0903375 0.635454
-0.190412 0.0916451 0.623159
-0.18588 0.0872072 0.606034
-0.13419 0.166956 0.729011
-0.127421 0.143791 0.715752
-0.114718 0.150936 0.720908
-0.122932 0.170874 0.733514
-0.160073 0.0767567 0.538643
-0.1542 0.0696909 0.526782
-0.150721 0.0614924 0.536594
-0.155904 0.0667498 0.548381
-0.132237 0.0619346 0.44354
-0.131805 0.0626 0.422596
-0.116794 0.0455996 0.422782
-0.117475 0.0460728 0.443645
-0.171301 0.132747 0.463838
-0.175448 0.160561 0.461547
-0.171351 0.159356 0.444082
-0.167613 0.131635 0.444941
-0.132678 0.0595833 0.603113
-0.117447 0.0563664 0.605178
-0.120827 0.0652638 0.620647
-0.137038 0.0680716 0.618295
-0.309219 0.1039 0.523214
-0.297182 0.104947 0.511635
-0.281059 0.105552 0.530197
-0.292626 0.10566 0.541872
-0.162263 0.122849 0.351551
-0.162321 0.148767 0.354748
-0.165762 0.146499 0.337327
-0.1645 0.119192 0.333817
-0.236928 0.115162 0.653065
-0.227792 0.115366 0.667441
-0.235457 0.135026 0.681684
-0.246252 0.132793 0.66711
-0.174338 0.0795269 0.582446
-0.167681 0.0725071 0.590383
-0.173138 0.0775014 0.603314
-0.180099 0.0831897 0.593178
-0.184324 0.166602 0.494731
-0.180831 0.143791 0.497562
-0.184389 0.150166 0.513624
-0.188256 0.17053 0.511136
-0.17658 0.13796 0.480599
-0.180161 0.163243 0.477976
-0.158152 0.067423 0.596493
-0.146348 0.0631692 0.600207
-0.151511 0.0710471 0.615162
-0.163425 0.0740627 0.610912
-0.105083 0.0358833 0.496807
-0.0897571 0.0291132 0.502589
-0.157042 0.0933312 0.329489
-0.144803 0.0704161 0.324846
-0.144889 0.0743065 0.344949
-0.156136 0.097216 0.348342
-0.101973 0.0351812 0.464473
-0.10201 0.0361702 0.48226
-0.116602 0.0464076 0.480086
-0.117769 0.0467386 0.462874
-0.128763 0.0498939 0.320637
-0.110877 0.030571 0.317476
-0.111632 0.0345734 0.339728
-0.129411 0.0536014 0.341731
-0.106387 0.0728096 0.638506
-0.0871958 0.0701426 0.638069
-0.135699 0.0455308 0.526981
-0.131901 0.0481864 0.510443
-0.122097 0.0403708 0.510563
-0.127613 0.0382396 0.527648
-0.188075 0.110011 0.577015
-0.190221 0.0958629 0.591111
-0.198803 0.0984935 0.606026
-0.194633 0.114089 0.583568
-0.168319 0.144518 0.319745
-0.165496 0.117172 0.316333
-0.12829 0.0495219 0.300682
-0.109961 0.0299522 0.296893
-0.212124 0.183203 0.566468
-0.205999 0.18232 0.560464
-0.203827 0.166128 0.562019
-0.209381 0.168359 0.570232
-0.0670193 0.0238486 0.53561
-0.0824651 0.0244708 0.544008
-0.0879387 0.0244222 0.527332
-0.0753187 0.0249877 0.51524
-0.129146 0.0528891 0.494798
-0.129157 0.0572272 0.48039
-0.11812 0.0441179 0.494784
-0.0506123 0.0259736 0.526131
-0.0607397 0.0244113 0.499219
-0.0676982 0.0671664 0.637209
-0.0663817 0.0581958 0.621672
-0.0687833 0.0759694 0.653273
-0.0489109 0.0717232 0.651704
-0.0479251 0.0805696 0.667876
-0.0681575 0.0853722 0.669913
-0.0455882 0.0883363 0.683982
-0.0655758 0.093682 0.686891
-0.0568836 0.111917 0.709154
-0.0538611 0.114857 0.72059
-0.183417 0.0926719 0.581186
-0.17738 0.0900993 0.57205
-0.144494 0.0691808 0.305879
-0.139578 0.258578 0.657183
-0.135927 0.26452 0.639005
-0.154201 0.25606 0.641795
-0.158365 0.250346 0.659302
-0.146241 0.163619 0.727678
-0.142697 0.13931 0.714239
-0.199667 0.228343 0.584557
-0.191806 0.234765 0.580602
-0.192617 0.230158 0.569427
-0.199267 0.224963 0.575268
-0.212927 0.203082 0.567632
-0.219095 0.201619 0.562321
-0.221223 0.207489 0.567375
-0.213126 0.208364 0.573022
-0.160612 0.171991 0.340063
-0.156112 0.173863 0.357102
-0.153583 0.229635 0.47484
-0.165728 0.209496 0.467669
-0.172701 0.20845 0.484955
-0.162581 0.226678 0.493697
-0.0375254 0.263612 0.631596
-0.0366288 0.266046 0.61628
-0.0560112 0.270307 0.619254
-0.0573009 0.267507 0.635295
-0.100458 0.265996 0.665267
-0.101795 0.260405 0.681502
-0.0786959 0.26354 0.673113
-0.0784801 0.267717 0.657645
-0.119458 0.266284 0.653364
-0.11647 0.271463 0.634939
-0.188298 0.1899 0.512683
-0.183865 0.188162 0.496693
-0.193945 0.192834 0.532951
-0.19329 0.176008 0.532883
-0.195234 0.177675 0.539508
-0.195863 0.193813 0.539359
-0.112973 0.174046 0.739375
-0.112377 0.195639 0.744558
-0.124331 0.192892 0.740254
-0.0735186 0.238457 0.722271
-0.0736546 0.24301 0.716156
-0.089017 0.237961 0.721392
-0.0851723 0.233666 0.726304
-0.0584315 0.274011 0.543142
-0.0370594 0.270605 0.543711
-0.0367405 0.268312 0.521351
-0.060494 0.271499 0.518432
-0.197223 0.207102 0.547413
-0.201212 0.205834 0.553168
-0.200287 0.214135 0.558839
-0.19527 0.216994 0.552754
-0.191424 0.218319 0.547101
-0.187511 0.219359 0.540829
-0.191768 0.20707 0.535842
-0.194605 0.207048 0.542233
-0.171088 0.223951 0.510498
-0.179337 0.207232 0.502273
-0.18495 0.207072 0.517318
-0.178142 0.222282 0.52405
-0.0321737 0.255058 0.443887
-0.0532264 0.258724 0.441017
-0.055825 0.263645 0.467545
-0.0342262 0.260288 0.470592
-0.212224 0.138851 0.575898
-0.211059 0.124068 0.580718
-0.217701 0.125685 0.572961
-0.219213 0.14218 0.566166
-0.236758 0.216434 0.577897
-0.246009 0.215088 0.573465
-0.249578 0.215779 0.578646
-0.239817 0.217938 0.583878
-0.228912 0.15841 0.545445
-0.227388 0.143664 0.553429
-0.238198 0.143458 0.536993
-0.238799 0.159096 0.529314
-0.157779 0.189459 0.726067
-0.158827 0.160233 0.726863
-0.146864 0.189993 0.731013
-0.22313 0.183179 0.550159
-0.230275 0.184631 0.538208
-0.232942 0.195164 0.540063
-0.224236 0.194124 0.551177
-0.321965 0.111432 0.53395
-0.304722 0.113798 0.551885
-0.252871 0.172709 0.509295
-0.257524 0.184882 0.508702
-0.241797 0.185417 0.523556
-0.239883 0.173447 0.524702
-0.145865 0.2302 0.456263
-0.159635 0.209747 0.449702
-0.13392 0.213692 0.342215
-0.149521 0.19463 0.34177
-0.144332 0.196067 0.35969
-0.129103 0.214782 0.36126
-0.164025 0.170682 0.322137
-0.137435 0.211814 0.321643
-0.153332 0.19364 0.321992
-0.0904882 0.193197 0.753035
-0.0809202 0.208101 0.752031
-0.0892015 0.212265 0.746074
-0.100965 0.195481 0.748757
-0.184634 0.154527 0.211478
-0.18518 0.14964 0.183115
-0.191562 0.119715 0.190419
-0.188009 0.125749 0.216922
-0.0550593 0.229268 0.734496
-0.0733297 0.222653 0.739903
-0.0667034 0.217604 0.747133
-0.0511895 0.22323 0.741949
-0.184332 0.130661 0.239753
-0.180797 0.159198 0.237655
-0.0925676 0.17498 0.746889
-0.103222 0.175252 0.74315
-0.0968177 0.15825 0.733261
-0.087545 0.158336 0.73992
-0.0795858 0.141357 0.736515
-0.191851 0.0893465 0.194364
-0.186882 0.0964441 0.216869
-0.073835 0.20375 0.757491
-0.0614084 0.213023 0.753731
-0.0475562 0.217783 0.750927
-0.0328071 0.221182 0.750048
-0.165041 0.168226 0.304661
-0.168188 0.142346 0.303117
-0.130169 0.169789 0.0593336
-0.103209 0.18037 0.0518316
-0.103443 0.161301 0.0398815
-0.134348 0.149307 0.0450367
-0.0357231 0.188845 0.0641853
-0.0339546 0.171716 0.0579891
-0.0689911 0.168616 0.0431904
-0.0713269 0.187339 0.0528829
-0.0401937 0.251545 0.175231
-0.0698772 0.250254 0.176048
-0.0694039 0.249597 0.202487
-0.0408523 0.251048 0.201161
-0.139141 0.208896 0.302593
-0.154847 0.190968 0.303757
-0.163748 0.116 0.300073
-0.195857 0.0113597 0.0858231
-0.19849 0.0502912 0.074059
-0.197533 0.0332035 0.0440362
-0.196976 -0.00440532 0.055047
-0.162526 0.0923196 0.0168676
-0.162792 0.112514 0.0412737
-0.133306 0.129457 0.0276012
-0.132104 0.111753 0.00710243
-0.0907417 0.0118693 0.293452
-0.107741 0.0323885 0.279311
-0.0884107 0.015591 0.27457
-0.0286955 -0.0139003 0.283934
-0.0510898 -0.0108514 0.286794
-0.0472029 -0.00491064 0.268276
-0.0268825 -0.00819884 0.2666
-0.0314797 -0.0137693 0.182583
-0.0172841 -0.0166107 0.182992
-0.0190182 -0.00947511 0.199426
-0.0356059 -0.00647312 0.199779
-0.177183 0.0685146 0.216204
-0.158048 0.0445853 0.214064
-0.154267 0.0545403 0.229784
-0.172067 0.0768278 0.233656
-0.03294 0.151408 0.0542911
-0.0644182 0.14862 0.036427
-0.184005 -0.0402611 0.0655951
-0.180792 -0.0224414 0.0966342
-0.156973 -0.0654246 0.0734877
-0.122164 -0.0710508 0.075521
-0.120981 -0.0548075 0.101951
-0.155012 -0.047386 0.10086
-0.016803 -0.0103105 0.0968067
-0.0277028 -0.0249994 0.123466
-0.0351134 -0.021989 0.113705
-0.019883 -0.00365138 0.0928247
-0.0374807 0.219575 0.0882826
-0.0372062 0.205522 0.0745819
-0.0705364 0.204324 0.0663751
-0.0690142 0.219525 0.0822804
-0.118005 0.224464 0.320433
-0.120054 0.221637 0.299999
-0.0973017 0.232236 0.318667
-0.115268 0.227239 0.341531
-0.0949171 0.235338 0.341483
-0.106564 0.257338 0.477122
-0.127733 0.247037 0.465415
-0.136372 0.247443 0.484103
-0.115574 0.260003 0.497189
-0.0760675 0.274484 0.624055
-0.0774577 0.271462 0.641072
-0.0956877 0.124005 0.00644336
-0.0539942 0.123704 0.0223084
-0.0690144 0.0987544 -0.0118725
-0.103378 0.100145 -0.0184859
-0.161797 0.0723874 -0.0101133
-0.183557 0.0480367 0.00183219
-0.185413 0.06723 0.030773
-0.196071 0.0154289 0.0135148
-0.197223 -0.0230753 0.0245522
-0.156468 -0.0826837 0.0440163
-0.120934 -0.0869076 0.0470167
-0.0396768 -0.0216445 0.0559958
-0.060805 -0.0423341 0.0634056
-0.0625084 -0.0526984 0.0383975
-0.0428017 -0.0285636 0.0315485
-0.0720273 -0.00772035 0.18006
-0.106793 0.00860004 0.195218
-0.110142 -0.000821505 0.17915
-0.0806648 -0.0134985 0.162517
-0.035123 -0.017193 0.307217
-0.054429 -0.0135574 0.310501
-0.070792 -0.0026137 0.290128
-0.0731478 -0.00424107 0.313294
-0.0924016 0.0115567 0.315482
-0.057051 0.00121325 0.404159
-0.0791473 0.0117267 0.403014
-0.0761596 0.00823659 0.381659
-0.0546944 -0.00233095 0.382587
-0.0589985 0.00591627 0.426577
-0.0811744 0.0156717 0.425317
-0.0602544 0.018586 0.473307
-0.0835941 0.0281555 0.487581
-0.0829373 0.0253947 0.468313
-0.0485195 0.0639355 0.635694
-0.0476897 0.0562939 0.619981
-0.181498 0.0589255 0.195299
-0.0305066 0.0928234 0.0278012
-0.0215331 0.0597043 0.032467
-0.0287924 0.0515909 0.00512777
-0.0426489 0.0795695 -0.003491
-0.181747 0.102714 0.237457
-0.157303 0.0915253 0.311425
-0.154904 0.0917212 0.29536
-0.160905 0.101433 0.471092
-0.158466 0.104308 0.446721
-0.0963456 0.0268748 0.548655
-0.0971682 0.0255642 0.536318
-0.186552 0.0867543 0.0582444
-0.154441 -0.0983882 0.0147493
-0.150872 -0.113056 -0.0137112
-0.117031 -0.116172 -0.0107681
-0.11872 -0.101988 0.0179282
-0.0374587 -0.013591 -0.00500716
-0.0468844 -0.0389947 0.00330785
-0.0526124 -0.050001 -0.0250803
-0.0455883 -0.025404 -0.034708
-0.0529644 -0.0394042 -0.0630092
-0.0570781 -0.0656005 -0.0544861
-0.0592602 -0.0775313 -0.0844471
-0.0574846 -0.0523469 -0.0912076
-0.185368 -0.0601005 0.0351888
-0.194416 -0.062882 -0.0302547
-0.180732 -0.0939035 -0.0214589
-0.183645 -0.0771466 0.00655633
-0.19662 -0.043777 -0.00323354
-0.135622 0.0896058 -0.0177781
-0.0302427 -0.00510334 0.0225173
-0.0258766 0.00107088 0.0466462
-0.0513403 0.0206673 -0.0539346
-0.0670756 0.0410929 -0.0622985
-0.0544844 0.0620643 -0.0351499
-0.039129 0.0379127 -0.0253181
-0.167327 0.0289756 -0.0560812
-0.184195 0.00420459 -0.0468365
-0.184154 0.0260903 -0.0225181
-0.165051 0.0505911 -0.0333065
-0.19528 -0.00705406 -0.0125794
-0.193217 -0.0274343 -0.0388057
-0.187414 -0.0985768 -0.0827713
-0.169775 -0.124983 -0.0762528
-0.175911 -0.109831 -0.0489789
-0.191381 -0.0814223 -0.0566058
-0.188297 -0.066848 -0.0880914
-0.190601 -0.0476431 -0.0632138
-0.183075 -0.0163968 -0.0703533
-0.182334 -0.0367469 -0.0937274
-0.168517 -0.0135827 -0.0990887
-0.168643 0.00750346 -0.077131
-0.148228 0.0242782 -0.0846865
-0.150759 0.00275705 -0.10463
-0.123871 0.0327432 -0.0893159
-0.0992236 0.0310741 -0.0887073
-0.10722 0.0102533 -0.108958
-0.129277 0.0108706 -0.108826
-0.0709778 -0.0115406 -0.103342
-0.0866601 0.00253506 -0.10743
-0.0776296 0.0208389 -0.0851917
-0.062568 0.00361587 -0.0790426
-0.0994322 -0.0538671 -0.19899
-0.11524 -0.0478801 -0.195334
-0.108473 -0.0394771 -0.172747
-0.0912169 -0.0452145 -0.175747
-0.132299 -0.0443607 -0.191605
-0.150288 -0.0472753 -0.187599
-0.143648 -0.0395929 -0.166425
-0.12566 -0.0372995 -0.169716
-0.175032 -0.0621243 -0.161903
-0.161036 -0.0475442 -0.164351
-0.166828 -0.0560019 -0.184623
-0.180398 -0.0702844 -0.182966
-0.190576 -0.0905648 -0.181006
-0.187273 -0.0826357 -0.158619
-0.189012 -0.116157 -0.182941
-0.18898 -0.110034 -0.158354
-0.178999 -0.139297 -0.159485
-0.178411 -0.144368 -0.185485
-0.0702868 -0.0954435 -0.172825
-0.0768777 -0.0976793 -0.200943
-0.0777047 -0.0777765 -0.201947
-0.0696958 -0.0744161 -0.17552
-0.0891097 -0.142677 -0.166771
-0.105413 -0.169759 -0.162278
-0.108576 -0.163338 -0.191178
-0.0940282 -0.139752 -0.197614
-0.187211 -0.0839441 -0.11195
-0.182611 -0.115106 -0.107985
-0.169351 -0.0335179 -0.119482
-0.1821 -0.0552771 -0.115597
-0.0776591 -0.0245672 -0.127763
-0.0945271 -0.0136701 -0.129555
-0.0619309 -0.0871988 -0.113879
-0.0611229 -0.0627794 -0.119044
-0.137281 -0.173829 -0.128491
-0.139148 -0.157715 -0.0997539
-0.165801 -0.142399 -0.102842
-0.165138 -0.159588 -0.130179
-0.188248 -0.0991365 -0.13529
-0.184054 -0.070764 -0.136767
-0.171605 -0.0498179 -0.140127
-0.156656 -0.0344183 -0.143824
-0.13913 -0.0263835 -0.146726
-0.119949 -0.0250576 -0.149439
-0.101592 -0.0278112 -0.150907
-0.0846403 -0.0357614 -0.151243
-0.0649086 -0.0699476 -0.147002
-0.0654367 -0.0924785 -0.144658
-0.134789 -0.176638 -0.187933
-0.13544 -0.181648 -0.158778
-0.16509 -0.16926 -0.158304
-0.163051 -0.16974 -0.186748
-0.13663 -0.165981 -0.214794
-0.116151 -0.154055 -0.21668
-0.139661 -0.044159 -0.208764
-0.157463 -0.0479501 -0.20492
-0.173879 -0.0565004 -0.20239
-0.196358 -0.0926036 -0.20376
-0.190622 -0.119024 -0.209433
-0.17738 -0.146097 -0.214297
-0.159434 -0.16362 -0.212942
-0.0952415 -0.0740688 -0.246808
-0.0867158 -0.0789302 -0.223494
-0.0868604 -0.0969535 -0.224275
-0.0966976 -0.0918303 -0.248196
-0.113222 -0.0466164 -0.239251
-0.128615 -0.0366989 -0.233941
-0.121677 -0.0476938 -0.213686
-0.107089 -0.0565777 -0.217902
-0.148669 -0.0344152 -0.229611
-0.167474 -0.0386545 -0.226058
-0.183991 -0.0487484 -0.223993
-0.202991 -0.0904572 -0.2309
-0.188183 -0.0709854 -0.201582
-0.197975 -0.0664042 -0.225594
-0.19389 -0.119909 -0.239238
-0.176269 -0.135548 -0.279535
-0.172385 -0.144601 -0.246943
-0.200354 -0.116231 -0.270524
-0.162301 -0.10162 -0.38378
-0.188152 -0.104703 -0.380157
-0.188529 -0.0907446 -0.415214
-0.165965 -0.0878635 -0.41866
-0.101223 -0.0830802 -0.275701
-0.0994907 -0.0631862 -0.273519
-0.11808 -0.0329727 -0.264653
-0.135835 -0.0233783 -0.258501
-0.218646 -0.076768 -0.291221
-0.21164 -0.0862158 -0.260164
-0.208888 -0.0595794 -0.253372
-0.216837 -0.0494168 -0.283527
-0.107981 -0.0515719 -0.373354
-0.108504 -0.0312796 -0.370196
-0.102416 -0.040273 -0.336191
-0.102048 -0.0620006 -0.340183
-0.139267 -0.0108575 -0.287161
-0.120755 -0.020462 -0.293917
-0.124465 -0.00975258 -0.325747
-0.143805 -0.0010853 -0.319935
-0.220701 -0.0588297 -0.361606
-0.221775 -0.0675661 -0.325258
-0.220516 -0.0406304 -0.317419
-0.219772 -0.0334442 -0.355013
-0.182233 -0.126629 -0.311982
-0.207071 -0.10694 -0.301937
-0.210353 -0.0969782 -0.334901
-0.187187 -0.116329 -0.345576
-0.153582 -0.124034 -0.314911
-0.158571 -0.114204 -0.348574
-0.131701 -0.0197872 -0.441545
-0.120687 -0.0252771 -0.404261
-0.120018 -0.0424909 -0.409134
-0.131579 -0.0340956 -0.447227
-0.149567 0.00409638 -0.355511
-0.130184 -0.00289416 -0.360824
-0.139878 -0.00173316 -0.396684
-0.155805 0.00450747 -0.392978
-0.215857 -0.0415606 -0.440824
-0.217872 -0.0498572 -0.400386
-0.216722 -0.0268002 -0.394906
-0.213015 -0.0207357 -0.435429
-0.189122 -0.0760878 -0.452974
-0.209225 -0.0760667 -0.408233
-0.208198 -0.0631446 -0.44702
-0.189542 -0.0653731 -0.490879
-0.173614 -0.0648387 -0.493642
-0.169552 -0.0743425 -0.455967
-0.142079 -0.0277892 -0.483629
-0.14057 -0.0142084 -0.478646
-0.149865 0.0042472 -0.471752
-0.162238 0.0103709 -0.467737
-0.16003 0.00663967 -0.430891
-0.146147 0.000528238 -0.43449
-0.192725 0.00402742 -0.430973
-0.176535 0.00788286 -0.429658
-0.177626 0.0114984 -0.466761
-0.19204 0.00720122 -0.468457
-0.209377 -0.0152513 -0.472866
-0.205409 -0.00545478 -0.432449
-0.203128 -0.00163987 -0.469697
-0.213094 -0.0339179 -0.477006
-0.206305 -0.0540741 -0.484688
-0.0137863 0.0851018 0.0599059
-0.0138189 0.0544376 0.0633902
-0.0173963 0.0605916 0.0521363
-0.0199203 0.0950644 0.0505994
-0.0663856 -0.0785302 -0.0176575
-0.0644416 -0.0647283 0.0115616
-0.0678584 -0.105443 -0.0777323
-0.068051 -0.0942323 -0.0475263
-0.0691263 -0.113982 -0.109225
-0.0729614 -0.117603 -0.140857
-0.0768548 -0.118666 -0.172285
-0.0829632 -0.118696 -0.201033
-0.0928758 -0.11636 -0.225441
-0.103764 -0.110929 -0.250589
-0.112373 -0.0941393 -0.308341
-0.101566 -0.0724789 -0.306971
-0.111152 -0.102835 -0.27783
-0.118783 -0.0737029 -0.377651
-0.113874 -0.0848816 -0.342161
-0.128264 -0.0613469 -0.414759
-0.139002 -0.0500349 -0.452687
-0.149276 -0.0425711 -0.488492
-0.0867272 -0.0368388 0.116488
-0.0590773 -0.0280456 0.103272
-0.0584804 -0.0248014 0.116588
-0.0856806 -0.0274272 0.133257
-0.00952161 0.021005 0.0796891
-0.0119886 0.00567985 0.084948
-0.0135306 0.0125112 0.0834311
-0.0102096 0.0280276 0.0787215
-0.179789 -0.129551 -0.133213
-0.153683 -0.0177561 -0.12397
-0.134443 -0.0098813 -0.127518
-0.114624 -0.00918594 -0.128682
-0.0849646 -0.145031 -0.135771
-0.0841169 -0.140181 -0.104564
-0.107676 -0.156521 -0.100079
-0.105899 -0.167405 -0.130832
-0.149459 -0.133548 -0.286193
-0.132029 -0.109348 -0.311434
-0.127675 -0.120185 -0.282069
-0.145478 -0.145883 -0.260325
-0.177542 -0.0273907 -0.250437
-0.195839 -0.0390817 -0.249805
-0.16206 -0.00894788 -0.282106
-0.184895 -0.0143506 -0.279126
-0.156085 -0.0224456 -0.253817
-0.0869269 -0.117841 -0.0435346
-0.114137 -0.129642 -0.0408161
-0.110602 -0.142931 -0.0702043
-0.0848597 -0.129886 -0.0731249
-0.140795 0.198119 0.376644
-0.126095 0.216224 0.379552
-0.149141 0.0711868 0.504025
-0.153579 0.0828677 0.48954
-0.141563 0.0692074 0.48325
-0.139427 0.0617925 0.497703
-0.162375 0.0937084 0.50052
-0.157183 0.0801442 0.51368
-0.163393 0.0885675 0.526252
-0.168277 0.102822 0.514203
-0.186499 0.127971 0.5665
-0.191334 0.132035 0.571443
-0.060183 0.0115828 0.44985
-0.0354265 0.00764619 0.44985
-0.0357977 0.0148537 0.472632
-0.0678947 0.00297759 0.270655
-0.0783882 0.00363454 0.205924
-0.0484186 -0.0133089 0.181477
-0.0554831 -0.00357985 0.202286
-0.0120105 -0.0247794 0.119745
-0.0753854 0.256854 0.435987
-0.0788134 0.260776 0.462201
-0.0578774 0.264555 0.650617
-0.0378501 0.260922 0.64625
-0.0570488 0.257395 0.678931
-0.0561744 0.253367 0.69148
-0.0369916 0.251431 0.686106
-0.0375863 0.254945 0.67363
-0.0341995 0.226256 0.7399
-0.0360188 0.23197 0.730175
-0.00850158 0.0440423 0.0751106
-0.0107286 0.0356307 0.0760601
-0.00903325 0.055466 0.0718889
-0.0383 -0.0166553 0.0756842
-0.0248597 0.00408917 0.0652563
-0.0240975 0.00533388 0.0777187
-0.0372859 -0.0134543 0.0907032
-0.193423 0.024606 0.115304
-0.198413 0.0657573 0.105567
-0.0996326 0.142159 0.0254211
-0.294885 0.18042 0.478709
-0.304129 0.189116 0.482863
-0.28509 0.193147 0.498235
-0.275855 0.183364 0.494161
-0.0818219 0.275405 0.544149
-0.0907393 0.268998 0.515664
-0.105351 0.155689 0.728068
-0.185584 0.151608 0.720418
-0.182344 0.125973 0.709419
-0.169563 0.130657 0.712386
-0.171884 0.156379 0.724334
-0.177663 0.233923 0.675589
-0.180305 0.221201 0.691371
-0.165784 0.229214 0.693931
-0.16237 0.241756 0.676551
-0.0390502 0.24818 0.149932
-0.0688604 0.248784 0.150352
-0.0500244 0.243543 0.366235
-0.0715975 0.242987 0.364391
-0.0705759 0.247375 0.386903
-0.049607 0.248192 0.389984
-0.114718 0.268905 0.530989
-0.131068 0.258471 0.514388
-0.0472493 0.0291009 0.551023
-0.0465219 0.0350467 0.570743
-0.0641092 0.0336764 0.57442
-0.0643186 0.0274906 0.556568
-0.281883 0.207697 0.537452
-0.259007 0.208471 0.54641
-0.25478 0.203798 0.535799
-0.275536 0.20348 0.522293
-0.18685 0.11058 0.0912936
-0.162005 0.134536 0.0626449
-0.158029 0.181945 0.409121
-0.147054 0.205305 0.412789
-0.142501 0.201873 0.394189
-0.154222 0.179226 0.390846
-0.173117 0.186598 0.462998
-0.168557 0.18588 0.445197
-0.17865 0.187054 0.479638
-0.205912 0.203614 0.565093
-0.20591 0.194939 0.561125
-0.211939 0.194453 0.565752
-0.0600696 -0.0341051 0.0852251
-0.0566484 -0.0243004 0.140263
-0.0493771 -0.0248232 0.151626
-0.00806627 0.0358158 0.0772807
-0.0800568 0.156586 0.749624
-0.0754097 0.139383 0.748106
-0.222919 0.17048 0.55338
-0.229609 0.172169 0.539946
-0.198016 0.178904 0.544484
-0.194613 0.162036 0.548539
-0.198518 0.164233 0.552572
-0.201535 0.181256 0.54954
-0.202327 0.195032 0.550166
-0.19858 0.194468 0.544298
-0.167058 0.0816835 0.626333
-0.155042 0.0800159 0.631589
-0.157199 0.0895321 0.648522
-0.169352 0.0901547 0.643635
-0.141013 0.077731 0.634909
-0.124602 0.0753865 0.637238
-0.12815 0.0869919 0.655137
-0.144018 0.0887526 0.652504
-0.102586 0.129683 0.712004
-0.0834771 0.113156 0.705784
-0.0613614 0.102847 0.700101
-0.0427017 0.095855 0.696606
-0.0370488 0.237983 0.720411
-0.0370744 0.243299 0.708551
-0.0567778 0.244073 0.712241
-0.0604447 0.236981 0.724852
-0.0677344 0.126305 0.734542
-0.0521396 0.113726 0.732593
-0.0389178 0.105049 0.718175
-0.333331 0.1248 0.539655
-0.316014 0.128006 0.557491
-0.0813194 0.189546 0.758161
-0.0830805 0.172803 0.754271
-0.324708 0.145749 0.559694
-0.341464 0.14229 0.541267
-0.152721 0.116234 0.693326
-0.156746 0.135105 0.713539
-0.165536 0.112744 0.692492
-0.0646816 0.124051 0.746573
-0.0504786 0.111403 0.744877
-0.197489 0.0741899 0.137481
-0.190506 0.0373038 0.142983
-0.155202 0.100557 0.366344
-0.160051 0.12542 0.369114
-0.0333802 -0.0047714 0.404681
-0.0311905 -0.00779091 0.382827
-0.0255128 0.0973396 0.75509
-0.0535923 -0.0114592 0.336722
-0.0303618 -0.0153686 0.333788
-0.0304015 -0.0114006 0.359536
-0.0533372 -0.00619767 0.360458
-0.020714 -0.016482 0.306074
-0.0186068 -0.0154127 0.293488
-0.0265007 -0.0209121 0.166097
-0.0152795 -0.022864 0.167167
-0.252382 0.109741 0.592039
-0.24254 0.109571 0.607159
-0.25315 0.116628 0.622676
-0.263534 0.118065 0.605333
-0.0740498 -0.000471772 0.338586
-0.0934086 0.0158204 0.339099
-0.182499 0.107263 0.569407
-0.182043 0.125267 0.560182
-0.0355251 0.023104 0.496679
-0.0807983 0.0283048 0.561143
-0.0812007 0.0344021 0.576589
-0.0974218 0.0370268 0.577251
-0.0965441 0.0308281 0.562999
-0.00718488 0.0462312 0.0761263
-0.263392 0.20819 0.610358
-0.25326 0.212812 0.618486
-0.250427 0.216569 0.608969
-0.261296 0.21181 0.60169
-0.0181384 0.0297127 0.057079
-0.0215365 0.0286571 0.0393888
-0.0271743 0.128259 0.0545536
-0.0135605 0.109976 0.0605592
-0.0889002 -0.0744611 0.0437339
-0.0885455 -0.0615583 0.0715074
-0.0889493 -0.0889295 0.0154133
-0.0880822 -0.103608 -0.0140082
-0.104137 -0.134908 -0.224382
-0.119436 -0.132575 -0.251687
-0.136278 -0.0989302 -0.344986
-0.141024 -0.0870848 -0.380234
-0.14696 -0.0746505 -0.417701
-0.153726 -0.0628417 -0.455792
-0.15995 -0.0554246 -0.492535
-0.345398 0.159908 0.537501
-0.329093 0.165222 0.557991
-0.328742 0.180001 0.54872
-0.345815 0.174678 0.52917
-0.251787 0.158941 0.513476
-0.252192 0.143579 0.520609
-0.267451 0.142808 0.503902
-0.267267 0.157659 0.49801
-0.284145 0.155982 0.481459
-0.288069 0.169121 0.478374
-0.26982 0.171621 0.494578
-0.314382 0.195485 0.490843
-0.324631 0.197536 0.500406
-0.30527 0.202175 0.518219
-0.295808 0.199628 0.506375
-0.341716 0.186514 0.519736
-0.32479 0.191205 0.538242
-0.316858 0.199117 0.528264
-0.334522 0.194588 0.509687
-0.288435 0.113647 0.501218
-0.284167 0.127321 0.493279
-0.268536 0.127461 0.511225
-0.272889 0.113802 0.519651
-0.264898 0.130966 0.634844
-0.274925 0.132046 0.615259
-0.198565 0.119301 0.59025
-0.203213 0.106101 0.603486
-0.208011 0.109308 0.598161
-0.203455 0.122757 0.589281
-0.287983 0.116293 0.569802
-0.274602 0.117682 0.587577
-0.285718 0.132284 0.595211
-0.299653 0.130934 0.575733
-0.257267 0.114036 0.537395
-0.253792 0.127991 0.528999
-0.23926 0.128096 0.545956
-0.242281 0.113596 0.553871
-0.265633 0.195895 0.513133
-0.247073 0.195939 0.527043
-0.231765 0.106569 0.59148
-0.24092 0.10692 0.577918
-0.176969 0.105157 0.560938
-0.189134 0.157725 0.536627
-0.191602 0.159928 0.543693
-0.140066 0.0554793 0.512678
-0.142283 0.0525314 0.527314
-0.175021 0.121585 0.504156
-0.178657 0.129342 0.519242
-0.147617 0.0627552 0.517763
-0.146862 0.0583099 0.527772
-0.101205 0.03237 0.445207
-0.0398637 0.102719 0.706809
-0.263021 0.108952 0.576253
-0.250916 0.107052 0.564387
-0.243228 0.208431 0.554367
-0.230407 0.208191 0.561532
-0.226823 0.202409 0.555448
-0.238173 0.203175 0.546196
-0.150545 0.258393 0.554451
-0.134103 0.264923 0.543125
-0.146191 0.253195 0.529942
-0.159812 0.247743 0.542936
-0.27119 0.195864 0.620659
-0.277219 0.18529 0.622652
-0.266631 0.187658 0.638156
-0.261315 0.198967 0.632487
-0.271222 0.172228 0.642107
-0.281912 0.170592 0.623355
-0.282063 0.151632 0.620949
-0.271481 0.152029 0.641136
-0.183174 0.14433 0.155215
-0.192949 0.114164 0.162445
-0.142014 0.0706467 0.289679
-0.12588 0.0514817 0.28415
-0.105227 0.0183542 0.213752
-0.03557 -0.0170107 0.106466
-0.0204937 0.00164051 0.0884978
-0.0262807 0.0223168 0.0141715
-0.195336 0.0822402 0.167608
-0.0347284 0.011213 -0.0146529
-0.0454251 -0.00199812 -0.0436606
-0.0907272 0.053436 -0.0673239
